0.27537	-6.37628	4.49500	0	49	0
0.52821	-6.34468	4.39500	0	49	0
0.78105	-6.28146	4.47500	0	49	0
1.12871	-6.21826	4.41500	0	49	0
1.44476	-6.18665	4.47500	0	49	0
1.69760	-6.09183	4.55500	0	49	0
2.14007	-5.90220	4.47500	0	49	0
2.39291	-5.64936	4.43500	0	49	0
2.70897	-5.45973	4.47500	0	49	0
2.93020	-5.23850	4.47500	0	49	0
3.24625	-4.98565	4.43500	0	49	0
3.49909	-4.73282	4.49500	0	49	0
3.87835	-4.41676	4.49500	0	49	0
4.03638	-4.22713	4.53500	0	49	0
4.32083	-3.84787	4.47500	0	49	0
4.47885	-3.56343	4.41500	0	49	0
4.70009	-3.21577	4.39500	0	49	0
4.85811	-2.96292	4.37500	0	49	0
5.04774	-2.61527	4.41500	0	49	0
5.14256	-2.42564	4.49500	0	49	0
5.26898	-2.01478	4.53500	0	49	0
5.30058	-1.76193	4.55500	0	49	0
5.36380	-1.35107	4.49500	0	49	0
5.39540	-1.06662	4.41500	0	49	0
5.42701	-0.59254	4.47500	0	49	0
5.39540	-0.21328	4.53500	0	49	0
5.36380	0.32401	4.53500	0	49	0
5.37558	0.76647	4.49500	0	49	0
5.37558	1.11414	4.49500	0	49	0
5.35058	1.61982	4.39500	0	49	0
5.33219	2.03068	4.49500	0	49	0
5.28879	2.50476	4.51500	0	49	0
5.28879	2.91563	4.39500	0	49	0
5.17416	3.32649	4.41500	0	49	0
4.95811	3.80718	4.47500	0	49	0
4.79490	4.17983	4.41500	0	49	0
4.57366	4.52749	4.45500	0	49	0
4.41564	4.81193	4.55500	0	49	0
4.19441	5.12799	4.41500	0	49	0
4.03638	5.34922	4.51500	0	49	0
3.81514	5.69688	4.37500	0	49	0
3.65712	5.94971	4.37500	0	49	0
3.49909	6.13935	4.45500	0	49	0
3.27785	6.48700	4.55500	0	49	0
3.05662	6.75966	4.37500	0	49	0
2.93020	6.98090	4.53500	0	49	0
2.77217	7.21392	4.39500	0	49	0
2.58255	7.40355	4.37500	0	49	0
2.32970	7.59318	4.37500	0	49	0
2.07686	7.87763	4.39500	0	49	0
1.95044	8.00405	4.51500	0	49	0
1.76081	8.16207	4.43500	0	49	0
1.44476	8.41492	4.47500	0	49	0
1.16031	8.57294	4.49500	0	49	0
0.87587	8.76257	4.55500	0	49	0
0.68623	8.88899	4.47500	0	49	0
0.41358	9.00362	4.37500	0	49	0
0.09753	9.06683	4.49500	0	49	0
-0.38834	9.11022	4.12000	0	49	0
-0.57797	9.04702	4.04000	0	49	0
-0.89402	8.98381	4.06000	0	49	0
-1.08365	8.85739	4.12000	0	49	0
-1.39970	8.73096	4.14000	0	49	0
-1.63415	8.49794	4.10000	0	49	0
-1.95020	8.33991	4.04000	0	49	0
-2.18983	8.16207	4.10000	0	49	0
-2.37946	7.94084	4.12000	0	49	0
-2.69551	7.75121	4.12000	0	49	0
-2.85353	7.52997	4.12000	0	49	0
-3.01157	7.24553	4.14000	0	49	0
-3.23280	7.02429	4.16000	0	49	0
-3.45403	6.80306	4.12000	0	49	0
-3.61206	6.61342	4.08000	0	49	0
-3.83329	6.29737	4.10000	0	49	0
-3.99132	5.94971	4.10000	0	49	0
-4.21256	5.60206	4.16000	0	49	0
-4.24416	5.38082	4.00000	0	49	0
-4.52861	4.96995	4.00000	0	49	0
-4.65503	4.71711	4.08000	0	49	0
-4.81306	4.24304	4.08000	0	49	0
-5.03429	4.02180	4.04000	0	49	0
-5.03429	3.73736	4.04000	0	49	0
-5.22392	3.42131	4.16000	0	49	0
-5.38195	3.07365	4.12000	0	49	0
-5.38195	2.72600	4.10000	0	49	0
-5.35034	2.37834	4.00000	0	49	0
-5.35034	1.99908	4.18000	0	49	0
-5.35034	1.49339	4.18000	0	49	0
-5.47676	0.92450	4.18000	0	49	0
-5.66639	0.48203	4.06000	0	49	0
-5.79282	-0.08686	4.16000	0	49	0
-5.79282	-0.43452	4.14000	0	49	0
-5.69799	-0.87699	4.02000	0	49	0
-5.66639	-1.22465	4.10000	0	49	0
-5.47676	-1.79354	4.02000	0	49	0
-5.38195	-2.07799	4.18000	0	49	0
-5.25552	-2.36761	4.18000	0	49	0
-5.16071	-2.61527	4.16000	0	49	0
-4.95127	-2.96811	4.10000	0	49	0
-4.88805	-3.22095	4.04000	0	49	0
-4.69843	-3.47380	4.06000	0	49	0
-4.44558	-3.78985	4.02000	0	49	0
-4.28756	-4.01108	4.00000	0	49	0
-4.02811	-4.37195	4.14000	0	49	0
-3.86490	-4.56157	4.06000	0	49	0
-3.64366	-4.81442	4.16000	0	49	0
-3.39083	-5.08047	4.16000	0	49	0
-3.07477	-5.33331	4.10000	0	49	0
-2.85353	-5.49133	4.18000	0	49	0
-2.56909	-5.71257	4.12000	0	49	0
-2.22144	-5.93380	4.18000	0	49	0
-1.87378	-6.06023	4.06000	0	49	0
-1.43131	-6.21826	4.02000	0	49	0
-1.05204	-6.24986	4.02000	0	49	0
-0.79920	-6.28146	4.18000	0	49	0
-0.35673	-6.40789	4.02000	0	49	0
0.02253	-6.40789	4.04000	0	49	0
0.43339	-6.37628	4.08000	0	49	0
1.00228	-6.28146	4.12000	0	49	0
1.50797	-6.21826	4.16000	0	49	0
1.95044	-5.96541	4.00000	0	49	0
2.42452	-5.71257	4.16000	0	49	0
2.74057	-5.52294	4.18000	0	49	0
3.15144	-5.23850	4.10000	0	49	0
3.37267	-5.01726	4.00000	0	49	0
3.68872	-4.66960	4.08000	0	49	0
4.00477	-4.19552	4.12000	0	49	0
4.19441	-3.94269	4.16000	0	49	0
4.38403	-3.65824	4.12000	0	49	0
4.51045	-3.37379	4.14000	0	49	0
4.73169	-3.05774	4.06000	0	49	0
4.95292	-2.67848	4.06000	0	49	0
5.11095	-2.33082	4.02000	0	49	0
5.23737	-2.04638	4.14000	0	49	0
5.36380	-1.50909	4.06000	0	49	0
5.39540	-1.03502	4.02000	0	49	0
5.39540	-0.62415	4.06000	0	49	0
5.39540	-0.23310	4.08000	0	49	0
5.39540	0.29240	4.04000	0	49	0
5.23737	1.08253	4.14000	0	49	0
5.20577	1.39858	4.14000	0	49	0
5.14256	1.80945	4.06000	0	49	0
5.11095	2.18870	4.06000	0	49	0
5.11095	2.59957	4.12000	0	49	0
5.01613	3.26328	4.10000	0	49	0
4.88971	3.54772	4.10000	0	49	0
4.73169	3.86378	4.06000	0	49	0
4.47885	4.40107	4.12000	0	49	0
4.28922	4.71711	4.00000	0	49	0
4.06798	5.15959	4.18000	0	49	0
3.90995	5.38082	4.10000	0	49	0
3.62551	5.69688	4.12000	0	49	0
3.34106	6.07614	4.06000	0	49	0
3.08823	6.45540	4.06000	0	49	0
2.86699	6.77145	4.04000	0	49	0
2.61415	7.05589	4.18000	0	49	0
2.39291	7.27713	4.18000	0	49	0
2.14007	7.56157	4.12000	0	49	0
1.91883	7.78281	4.06000	0	49	0
1.69760	8.00405	4.10000	0	49	0
1.38155	8.28849	4.10000	0	49	0
1.06550	8.47813	4.02000	0	49	0
0.87587	8.60454	4.08000	0	49	0
0.62303	8.73096	4.14000	0	49	0
0.43339	8.88899	4.02000	0	49	0
0.18056	8.98381	4.14000	0	49	0
-0.10389	9.07862	4.18000	0	49	0
5.28076	0.68487	4.18000	0	49	0
-0.48316	9.20505	3.74500	0	49	0
-0.67279	9.20505	3.72500	0	49	0
-0.92563	9.11022	3.66500	0	49	0
-1.11526	9.01541	3.66500	0	49	0
-1.27328	8.88899	3.68500	0	49	0
-1.55773	8.76257	3.76500	0	49	0
-1.77896	8.60454	3.62500	0	49	0
-2.03180	8.44652	3.80500	0	49	0
-2.22144	8.22528	3.76500	0	49	0
-2.47428	8.00405	3.74500	0	49	0
-2.60070	7.81442	3.80500	0	49	0
-2.82193	7.56157	3.72500	0	49	0
-2.97995	7.34034	3.74500	0	49	0
-3.16959	7.15071	3.80500	0	49	0
-3.26441	6.92948	3.80500	0	49	0
-3.45403	6.64503	3.68500	0	49	0
-3.64366	6.39218	3.72500	0	49	0
-3.73848	6.13935	3.78500	0	49	0
-3.91632	5.83651	3.64500	0	49	0
-4.18095	5.47564	3.78500	0	49	0
-4.26255	5.15959	3.80500	0	49	0
-4.43379	4.93835	3.74500	0	49	0
-4.57200	4.52749	3.64500	0	49	0
-4.68663	4.24304	3.78500	0	49	0
-4.81306	3.99020	3.70500	0	49	0
-4.90787	3.61093	3.72500	0	49	0
-5.06590	3.26328	3.68500	0	49	0
-5.12911	2.85241	3.70500	0	49	0
-5.19231	2.50476	3.74500	0	49	0
-5.22392	2.12549	3.70500	0	49	0
-5.22392	1.80945	3.64500	0	49	0
-5.22392	1.55661	3.72500	0	49	0
-5.31874	1.30377	3.66500	0	49	0
-5.38195	0.92450	3.64500	0	49	0
-5.47676	0.51363	3.76500	0	49	0
-5.57158	0.26079	3.72500	0	49	0
-5.63478	-0.15007	3.70500	0	49	0
-5.66639	-0.59254	3.78500	0	49	0
-5.63478	-1.03502	3.68500	0	49	0
-5.50837	-1.35107	3.78500	0	49	0
-5.44515	-1.73032	3.72500	0	49	0
-5.31874	-2.29922	3.66500	0	49	0
-5.19231	-2.64688	3.68500	0	49	0
-5.00268	-2.99453	3.64500	0	49	0
-4.84466	-3.27898	3.68500	0	49	0
-4.62343	-3.56343	3.66500	0	49	0
-4.46540	-3.81627	3.62500	0	49	0
-4.30737	-4.06911	3.62500	0	49	0
-4.05453	-4.44836	3.62500	0	49	0
-3.89650	-4.66960	3.78500	0	49	0
-3.70688	-4.89084	3.72500	0	49	0
-3.42243	-5.11207	3.66500	0	49	0
-3.04317	-5.42812	3.78500	0	49	0
-2.79033	-5.68097	3.78500	0	49	0
-2.44267	-5.90220	3.76500	0	49	0
-2.15822	-6.02862	3.64500	0	49	0
-1.71576	-6.15504	3.62500	0	49	0
-1.33649	-6.24986	3.78500	0	49	0
-1.05204	-6.34468	3.74500	0	49	0
-0.76760	-6.43949	3.68500	0	49	0
-0.41995	-6.50930	3.66500	0	49	0
-0.04068	-6.51591	3.66500	0	49	0
0.27537	-6.45270	3.66500	0	49	0
0.72963	-6.41307	3.76500	0	49	0
1.10889	-6.34986	3.62500	0	49	0
1.57118	-6.21826	3.78500	0	49	0
1.98205	-6.09183	3.70500	0	49	0
2.32970	-5.90220	3.76500	0	49	0
2.63773	-5.66115	3.70500	0	49	0
2.92218	-5.37670	3.68500	0	49	0
3.17501	-5.18708	3.70500	0	49	0
3.42786	-4.96584	3.70500	0	49	0
3.71230	-4.64978	3.70500	0	49	0
3.88353	-4.30355	3.74500	0	49	0
4.16280	-3.87948	3.62500	0	49	0
4.28922	-3.65824	3.72500	0	49	0
4.44724	-3.37379	3.72500	0	49	0
4.73169	-2.96292	3.68500	0	49	0
4.88971	-2.71008	3.76500	0	49	0
5.04774	-2.29922	3.66500	0	49	0
5.23737	-1.91996	3.64500	0	49	0
5.28879	-1.35107	3.80500	0	49	0
5.35200	-0.81378	3.62500	0	49	0
5.33219	-0.30809	3.78500	0	49	0
5.26898	0.10277	3.78500	0	49	0
5.26898	0.51363	3.78500	0	49	0
5.11095	1.08253	3.62500	0	49	0
5.04774	1.49339	3.80500	0	49	0
4.95292	1.87266	3.64500	0	49	0
4.95292	2.47316	3.74500	0	49	0
4.85811	2.94723	3.76500	0	49	0
4.70009	3.45291	3.78500	0	49	0
4.51045	3.86378	3.74500	0	49	0
4.35243	4.17983	3.72500	0	49	0
4.16280	4.62230	3.80500	0	49	0
3.84674	5.22280	3.78500	0	49	0
3.56230	5.72848	3.62500	0	49	0
3.34106	6.04453	3.72500	0	49	0
3.11983	6.36058	3.70500	0	49	0
2.89859	6.64503	3.74500	0	49	0
2.70897	6.89787	3.76500	0	49	0
2.48773	7.21392	3.74500	0	49	0
2.29810	7.43516	3.70500	0	49	0
1.95044	7.78281	3.62500	0	49	0
1.63439	8.09887	3.64500	0	49	0
1.34995	8.35171	3.78500	0	49	0
0.90747	8.63615	3.78500	0	49	0
0.65463	8.79417	3.70500	0	49	0
0.40179	9.01541	3.80500	0	49	0
0.21216	9.07862	3.70500	0	49	0
-0.00908	9.17343	3.74500	0	49	0
-0.26192	9.23665	3.70500	0	49	0
-0.43316	9.26165	3.25000	0	49	0
-0.86242	9.23665	3.43000	0	49	0
-1.08365	9.14183	3.29000	0	49	0
-1.41291	8.99701	3.43000	0	49	0
-1.66575	8.77578	3.27000	0	49	0
-2.00020	8.57294	3.29000	0	49	0
-2.25304	8.32010	3.33000	0	49	0
-2.44267	8.06726	3.31000	0	49	0
-2.72193	7.73942	3.43000	0	49	0
-3.01157	7.40355	3.43000	0	49	0
-3.23280	7.08750	3.39000	0	49	0
-3.42243	6.70824	3.39000	0	49	0
-3.58045	6.39218	3.37000	0	49	0
-3.83329	5.94971	3.37000	0	49	0
-3.89650	5.60206	3.39000	0	49	0
-4.02292	5.19120	3.43000	0	49	0
-4.16916	4.83693	3.31000	0	49	0
-4.27576	4.46427	3.43000	0	49	0
-4.45361	4.08502	3.33000	0	49	0
-4.56022	3.61093	3.35000	0	49	0
-4.68663	3.16847	3.33000	0	49	0
-4.81306	2.56797	3.37000	0	49	0
-4.87627	2.12549	3.43000	0	49	0
-4.97108	1.74624	3.41000	0	49	0
-5.06590	1.30377	3.37000	0	49	0
-5.25552	0.95611	3.41000	0	49	0
-5.35034	0.73487	3.29000	0	49	0
-5.50837	0.29240	3.37000	0	49	0
-5.61497	-0.15007	3.39000	0	49	0
-5.64658	-0.68736	3.35000	0	49	0
-5.64658	-1.12983	3.41000	0	49	0
-5.60318	-1.47748	3.37000	0	49	0
-5.44515	-1.73032	3.41000	0	49	0
-5.12911	-2.10959	3.29000	0	49	0
-5.06590	-2.52046	3.33000	0	49	0
-4.93947	-2.86811	3.31000	0	49	0
-4.78145	-3.21577	3.35000	0	49	0
-4.62343	-3.56343	3.37000	0	49	0
-4.49700	-3.87948	3.37000	0	49	0
-4.30737	-4.16392	3.29000	0	49	0
-4.08614	-4.57479	3.37000	0	49	0
-3.86490	-4.85924	3.33000	0	49	0
-3.61206	-5.14368	3.43000	0	49	0
-3.29601	-5.42812	3.29000	0	49	0
-3.01157	-5.61775	3.33000	0	49	0
-2.91675	-5.71257	3.29000	0	49	0
-2.63230	-5.90220	3.43000	0	49	0
-2.18983	-6.12344	3.37000	0	49	0
-2.03180	-6.18665	3.37000	0	49	0
-1.46291	-6.34468	3.29000	0	49	0
-1.24167	-6.34468	3.29000	0	49	0
-0.83081	-6.47110	3.35000	0	49	0
-0.48316	-6.47110	3.37000	0	49	0
0.11735	-6.50270	3.35000	0	49	0
0.30698	-6.47110	3.29000	0	49	0
0.78105	-6.40789	3.43000	0	49	0
1.09710	-6.34468	3.35000	0	49	0
1.31834	-6.34468	3.39000	0	49	0
1.66599	-6.28146	3.33000	0	49	0
2.07686	-6.12344	3.33000	0	49	0
2.36130	-5.96541	3.31000	0	49	0
2.70897	-5.77578	3.33000	0	49	0
2.99341	-5.58615	3.43000	0	49	0
3.24625	-5.33331	3.29000	0	49	0
3.46749	-5.01726	3.27000	0	49	0
3.68872	-4.76442	3.31000	0	49	0
3.84674	-4.51157	3.31000	0	49	0
3.90995	-4.32194	3.39000	0	49	0
4.13120	-3.97429	3.31000	0	49	0
4.32083	-3.59503	3.31000	0	49	0
4.54206	-3.24737	3.25000	0	49	0
4.70009	-2.93132	3.35000	0	49	0
4.78311	-2.71008	3.33000	0	49	0
5.00434	-2.29922	3.35000	0	49	0
5.16237	-1.66711	3.27000	0	49	0
5.22558	-1.16144	3.29000	0	49	0
5.25719	-0.78218	3.41000	0	49	0
5.25719	-0.27649	3.35000	0	49	0
5.09255	0.48203	3.37000	0	49	0
4.99774	0.82969	3.25000	0	49	0
4.76330	1.71463	3.27000	0	49	0
4.70009	2.06229	3.41000	0	49	0
4.63688	2.44155	3.43000	0	49	0
4.54206	2.91563	3.29000	0	49	0
4.38403	3.42131	3.39000	0	49	0
4.25762	3.89539	3.31000	0	49	0
4.09959	4.27464	3.41000	0	49	0
3.59391	5.25441	3.33000	0	49	0
3.37267	5.79169	3.29000	0	49	0
3.11983	6.17095	3.37000	0	49	0
2.89859	6.55021	3.39000	0	49	0
2.61415	6.89787	3.37000	0	49	0
2.36130	7.27713	3.31000	0	49	0
2.23489	7.49836	3.25000	0	49	0
1.98205	7.75121	3.29000	0	49	0
1.79242	7.97245	3.43000	0	49	0
1.57118	8.19368	3.31000	0	49	0
1.31834	8.47813	3.43000	0	49	0
1.09710	8.63615	3.43000	0	49	0
0.74944	8.85739	3.29000	0	49	0
0.47679	9.04702	3.29000	0	49	0
0.21216	9.17343	3.29000	0	49	0
-0.04068	9.26825	3.43000	0	49	0
4.79490	1.30377	3.33000	0	49	0
3.87835	4.74872	3.43000	0	49	0
-4.81306	2.82081	3.33000	0	49	0
-0.72936	8.57038	3.03500	0	49	0
-0.97091	8.46303	2.95500	0	49	0
-1.37351	8.27515	2.99500	0	49	0
-1.69558	8.08728	2.93500	0	49	0
-2.04450	7.60416	2.95500	0	49	0
-2.20553	7.28209	2.91500	0	49	0
-2.42026	6.98685	3.03500	0	49	0
-2.60813	6.79898	2.93500	0	49	0
-2.82285	6.47690	2.93500	0	49	0
-2.98388	6.18167	3.01500	0	49	0
-3.11808	5.88643	3.03500	0	49	0
-3.30596	5.53752	2.93500	0	49	0
-3.52067	5.10808	3.01500	0	49	0
-3.68172	4.81285	2.97500	0	49	0
-3.76223	4.51761	3.05500	0	49	0
-3.95011	3.84662	2.89500	0	49	0
-4.03062	3.39035	2.95500	0	49	0
-4.08431	3.09511	3.05500	0	49	0
-4.16483	2.47781	2.89500	0	49	0
-4.16483	2.04837	3.01500	0	49	0
-4.16483	1.56526	2.99500	0	49	0
-0.62200	8.59722	2.91500	0	49	0
-0.19257	8.48987	2.97500	0	49	0
-0.08521	8.43619	2.91500	0	49	0
0.42474	8.11412	2.91500	0	49	0
0.88101	7.79204	3.03500	0	49	0
1.25676	7.52365	2.99500	0	49	0
1.55200	7.22841	2.89500	0	49	0
1.79356	7.01369	2.97500	0	49	0
2.00828	6.66478	2.97500	0	49	0
2.22299	6.34270	3.05500	0	49	0
2.33035	6.18167	2.99500	0	49	0
2.62559	5.85959	2.91500	0	49	0
2.78662	5.53752	2.99500	0	49	0
3.16237	4.97389	3.03500	0	49	0
3.37709	4.54445	3.05500	0	49	0
3.51129	4.22238	2.87500	0	49	0
3.64549	3.71242	2.99500	0	49	0
3.83336	3.14879	2.95500	0	49	0
4.04808	2.23625	2.87500	0	49	0
4.07492	1.91418	2.99500	0	49	0
4.07492	1.51158	2.99500	0	49	0
4.10176	1.32371	2.93500	0	49	0
0.21002	8.65090	2.97500	0	49	0
0.47842	8.46303	2.95500	0	49	0
0.71997	8.24831	2.89500	0	49	0
0.98837	8.08728	3.03500	0	49	0
1.20309	7.92624	3.03500	0	49	0
1.39097	7.76520	2.95500	0	49	0
1.60568	7.52365	2.95500	0	49	0
1.82040	7.17473	3.01500	0	49	0
2.03512	7.04053	2.93500	0	49	0
2.19615	6.85266	2.91500	0	49	0
2.38403	6.61110	2.95500	0	49	0
2.59875	6.34270	2.93500	0	49	0
2.75978	6.15483	2.91500	0	49	0
2.94766	5.72539	2.97500	0	49	0
3.18921	5.34964	2.89500	0	49	0
3.37709	5.08124	2.91500	0	49	0
3.53813	4.70549	2.95500	0	49	0
3.72600	4.22238	3.05500	0	49	0
3.88704	3.79294	2.97500	0	49	0
4.07492	3.20247	2.87500	0	49	0
4.15544	2.77304	2.99500	0	49	0
4.23596	2.26309	3.03500	0	49	0
4.23596	1.83366	2.97500	0	49	0
-0.32676	8.65090	2.95500	0	49	0
-0.75620	8.65090	2.89500	0	49	0
-1.40035	8.48987	3.05500	0	49	0
-1.74926	8.14095	2.89500	0	49	0
-2.01766	7.79204	3.05500	0	49	0
-2.36658	7.49681	2.91500	0	49	0
-2.60813	7.28209	2.93500	0	49	0
-2.68865	7.06737	2.91500	0	49	0
-2.76917	6.93317	2.91500	0	49	0
-2.95704	6.71846	2.91500	0	49	0
-3.06440	6.53058	3.05500	0	49	0
-3.27912	6.20851	2.89500	0	49	0
-3.41331	5.94011	3.01500	0	49	0
-3.54751	5.69855	2.97500	0	49	0
-3.73539	5.29596	2.87500	0	49	0
-3.89643	5.02756	3.05500	0	49	0
-4.03062	4.70549	3.05500	0	49	0
-4.08431	4.32974	3.03500	0	49	0
-4.16483	3.95398	3.05500	0	49	0
-4.19167	3.63190	3.03500	0	49	0
-4.27219	3.41719	2.87500	0	49	0
-4.37954	3.12195	2.89500	0	49	0
-4.48690	2.88040	3.03500	0	49	0
-4.64794	2.63884	2.87500	0	49	0
-4.54058	2.47781	2.99500	0	49	0
-4.54058	2.39729	3.03500	0	49	0
-4.54058	2.26309	2.95500	0	49	0
-4.27219	2.53149	2.97500	0	49	0
-4.08431	3.04143	2.97500	0	49	0
-3.81591	3.63190	2.87500	0	49	0
-3.62803	4.14186	3.03500	0	49	0
-3.30596	4.83969	2.99500	0	49	0
-3.01072	5.40331	2.87500	0	49	0
-2.58129	5.99379	2.97500	0	49	0
-2.23237	6.55742	2.95500	0	49	0
-1.88346	7.14789	2.99500	0	49	0
-1.42719	7.44313	2.91500	0	49	0
-1.02459	7.68468	3.05500	0	49	0
-0.62200	7.73836	2.93500	0	49	0
-0.16573	7.73836	2.91500	0	49	0
0.26370	7.46997	2.97500	0	49	0
0.71997	7.20157	2.99500	0	49	0
1.25676	6.87950	2.93500	0	49	0
1.68620	6.42322	2.97500	0	49	0
2.00828	5.85959	3.01500	0	49	0
2.22299	5.40331	2.91500	0	49	0
2.43771	4.83969	3.03500	0	49	0
2.62559	4.27606	2.97500	0	49	0
2.84030	3.84662	2.95500	0	49	0
3.16237	3.30983	3.03500	0	49	0
3.37709	2.82672	3.05500	0	49	0
3.56497	2.93408	2.91500	0	49	0
3.35025	3.60506	3.03500	0	49	0
3.21605	4.03450	2.99500	0	49	0
2.84030	4.86653	3.03500	0	49	0
2.70611	5.40331	3.03500	0	49	0
2.41087	6.04747	3.03500	0	49	0
2.00828	6.61110	2.97500	0	49	0
1.63252	7.04053	3.05500	0	49	0
0.96153	7.46997	3.05500	0	49	0
0.71997	7.63100	2.95500	0	49	0
0.07583	7.84572	2.91500	0	49	0
-0.32676	7.92624	3.05500	0	49	0
-0.89040	7.92624	3.05500	0	49	0
-1.18563	7.81888	3.03500	0	49	0
-1.58823	7.57732	3.01500	0	49	0
-1.99082	7.33577	3.03500	0	49	0
-1.26615	8.06044	2.93500	0	49	0
-0.59516	8.24831	2.89500	0	49	0
-0.97091	6.77214	2.93500	0	49	0
-2.09818	6.31586	2.87500	0	49	0
-2.42026	4.97389	2.99500	0	49	0
-3.01072	4.24922	2.99500	0	49	0
-3.27912	4.70549	2.93500	0	49	0
-2.42026	5.34964	2.95500	0	49	0
-2.12502	5.96695	2.87500	0	49	0
-1.13195	6.34270	3.03500	0	49	0
-0.46096	6.47690	2.93500	0	49	0
0.10267	6.42322	3.01500	0	49	0
0.85417	6.12799	2.99500	0	49	0
1.49833	5.75223	2.99500	0	49	0
1.82040	5.34964	2.87500	0	49	0
2.27667	4.00766	2.97500	0	49	0
2.38403	3.25615	2.91500	0	49	0
2.41087	2.85356	2.87500	0	49	0
1.92776	3.44403	3.01500	0	49	0
1.84724	4.14186	2.93500	0	49	0
1.63252	4.70549	2.99500	0	49	0
1.39097	5.29596	3.03500	0	49	0
0.93469	5.80591	3.01500	0	49	0
0.39790	6.02063	3.05500	0	49	0
0.12950	6.02063	2.95500	0	49	0
-0.89040	5.85959	3.03500	0	49	0
-1.07827	5.69855	2.87500	0	49	0
-1.50771	5.26912	3.03500	0	49	0
-2.25921	3.98082	2.97500	0	49	0
-3.06440	3.06827	3.01500	0	49	0
-2.66181	3.65874	2.91500	0	49	0
-1.88346	4.43710	2.95500	0	49	0
-1.34667	4.92021	2.91500	0	49	0
-0.91724	5.18860	3.05500	0	49	0
-0.29993	5.29596	2.91500	0	49	0
0.37106	5.21544	2.87500	0	49	0
1.01521	4.86653	2.89500	0	49	0
1.63252	4.06134	2.97500	0	49	0
1.76672	3.47087	2.87500	0	49	0
-1.61507	5.53752	2.89500	0	49	0
-1.42719	5.91327	2.95500	0	49	0
-0.80988	6.23535	2.87500	0	49	0
-1.50771	6.63794	2.87500	0	49	0
-1.31983	6.98685	2.97500	0	49	0
-1.13195	7.17473	3.01500	0	49	0
-0.29993	7.28209	2.95500	0	49	0
-0.00469	7.17473	3.01500	0	49	0
-0.59516	7.01369	3.01500	0	49	0
1.12257	6.69162	2.97500	0	49	0
2.03512	5.85959	2.91500	0	49	0
0.02215	4.67865	3.03500	0	49	0
-1.05143	4.49077	2.93500	0	49	0
-1.42719	3.95398	2.97500	0	49	0
-1.82978	3.36351	3.05500	0	49	0
-1.02459	3.49771	3.01500	0	49	0
-0.08521	3.71242	3.03500	0	49	0
0.50526	3.68558	3.05500	0	49	0
1.22993	3.55138	2.99500	0	49	0
1.60568	3.22931	2.87500	0	49	0
1.79356	2.96092	3.05500	0	49	0
0.15634	2.93408	2.87500	0	49	0
-0.97091	3.01459	2.89500	0	49	0
-2.09818	2.93408	3.05500	0	49	0
-3.09124	2.71936	2.89500	0	49	0
-3.84275	2.10205	2.99500	0	49	0
-4.24535	1.61894	2.87500	0	49	0
-4.32586	0.89427	2.89500	0	49	0
-3.57435	1.51158	2.95500	0	49	0
-1.45403	2.47781	2.93500	0	49	0
-0.38044	2.71936	2.95500	0	49	0
1.01521	2.69252	3.01500	0	49	0
1.71304	2.50465	3.05500	0	49	0
2.19615	2.23625	2.99500	0	49	0
2.59875	1.99469	3.05500	0	49	0
1.12257	3.14879	2.87500	0	49	0
0.39790	3.49771	3.01500	0	49	0
0.04899	4.35658	2.97500	0	49	0
-0.38044	4.35658	2.97500	0	49	0
-0.43412	4.89337	2.95500	0	49	0
0.31738	4.86653	3.05500	0	49	0
1.06889	4.75917	2.95500	0	49	0
1.44465	4.51761	2.91500	0	49	0
1.55200	4.86653	2.87500	0	49	0
0.31738	5.61804	3.05500	0	49	0
-0.32676	5.80591	3.01500	0	49	0
1.44465	5.16176	2.93500	0	49	0
2.30351	4.27606	2.93500	0	49	0
2.35719	3.44403	3.01500	0	49	0
2.65243	2.66568	3.01500	0	49	0
3.13554	2.42413	2.87500	0	49	0
3.29657	2.63884	2.97500	0	49	0
2.92082	3.76610	2.93500	0	49	0
2.89398	4.83969	2.89500	0	49	0
2.14248	5.83275	2.91500	0	49	0
-0.51464	6.02063	2.99500	0	49	0
-1.61507	5.18860	2.95500	0	49	0
-2.28606	4.46393	2.91500	0	49	0
-2.63497	4.16869	2.95500	0	49	0
-1.69558	4.81285	2.99500	0	49	0
-1.05143	4.86653	2.87500	0	49	0
-1.88346	3.79294	2.93500	0	49	0
-2.33974	3.47087	2.97500	0	49	0
-2.44710	3.14879	2.91500	0	49	0
-0.70252	4.92021	3.01500	0	49	0
-0.35360	5.67172	2.89500	0	49	0
-1.99082	5.94011	2.89500	0	49	0
-3.30596	4.51761	2.95500	0	49	0
-3.06440	3.41719	3.05500	0	49	0
-3.97695	2.53149	2.99500	0	49	0
-3.76223	3.04143	2.97500	0	49	0
-3.54751	3.39035	3.05500	0	49	0
-3.35964	3.81979	3.03500	0	49	0
4.15544	1.16266	3.01500	0	49	0
4.47751	0.76007	3.03500	0	49	0
4.74591	0.33064	2.95500	0	49	0
4.74591	-0.50138	2.87500	0	49	0
4.69223	-0.98450	2.91500	0	49	0
4.69223	-1.46761	3.05500	0	49	0
4.34331	-2.72907	2.87500	0	49	0
4.15544	-3.23902	2.97500	0	49	0
3.99440	-3.58793	3.03500	0	49	0
3.86020	-3.93685	2.91500	0	49	0
3.61865	-4.47365	2.99500	0	49	0
3.35025	-4.87624	2.91500	0	49	0
3.00134	-5.11780	3.05500	0	49	0
2.67927	-5.38619	2.99500	0	49	0
2.30351	-5.62775	3.05500	0	49	0
1.98144	-5.86930	3.03500	0	49	0
1.47149	-6.05718	2.93500	0	49	0
1.04205	-6.08402	3.05500	0	49	0
0.47842	-6.21821	2.97500	0	49	0
-0.03153	-6.24505	3.01500	0	49	0
-0.78304	-6.13769	2.87500	0	49	0
-1.45403	-5.94982	2.89500	0	49	0
-2.20553	-5.70826	2.91500	0	49	0
-3.09124	-5.33251	2.87500	0	49	0
-3.19860	-5.17147	3.01500	0	49	0
-3.68172	-4.79572	2.99500	0	49	0
-3.89643	-4.39312	2.97500	0	49	0
-4.32586	-3.99053	2.99500	0	49	0
-4.62110	-3.48058	2.93500	0	49	0
-4.78214	-2.89011	2.91500	0	49	0
-4.88950	-2.27280	3.03500	0	49	0
-5.05053	-1.84336	2.97500	0	49	0
-5.07737	-1.44077	2.97500	0	49	0
-5.10421	-0.76979	3.03500	0	49	0
-5.02369	-0.23299	3.03500	0	49	0
-4.91634	0.22328	2.87500	0	49	0
-4.78214	0.89427	2.89500	0	49	0
-4.59426	1.53842	3.05500	0	49	0
-4.59426	1.21634	2.95500	0	49	0
0.64597	-2.16037	19.85000	0	49	0
0.90449	-2.17760	19.87000	0	49	0
1.04237	-2.17760	19.89000	0	49	0
0.99066	-2.36703	19.89000	0	49	0
0.87002	-2.45314	19.77000	0	49	0
0.76661	-2.50480	19.91000	0	49	0
0.54256	-2.50480	19.81000	0	49	0
0.47361	-2.31536	19.87000	0	49	0
0.74937	-2.17760	19.81000	0	49	0
0.66320	-2.33258	19.81000	0	49	0
0.76661	-2.34980	19.91000	0	49	0
0.38744	0.38839	19.43500	0	49	0
0.09445	0.21617	19.47500	0	49	0
-0.02619	0.04397	19.55500	0	49	0
-0.26748	-0.12825	19.49500	0	49	0
-0.43982	-0.33491	19.39500	0	49	0
-0.52599	-0.48990	19.39500	0	49	0
-0.66387	-0.59323	19.55500	0	49	0
-0.76728	-0.78267	19.45500	0	49	0
-0.88793	-0.93765	19.43500	0	49	0
-1.04303	-1.23042	19.55500	0	49	0
-1.18091	-1.38541	19.39500	0	49	0
-1.23262	-1.66095	19.55500	0	49	0
-1.23262	-1.97094	19.41500	0	49	0
-1.16368	-2.16037	19.49500	0	49	0
-1.06027	-2.52202	19.37500	0	49	0
-1.06027	-2.79756	19.51500	0	49	0
-0.99133	-2.96977	19.37500	0	49	0
-0.85346	-3.24532	19.55500	0	49	0
-0.75005	-3.36586	19.43500	0	49	0
-0.62941	-3.60696	19.53500	0	49	0
-0.49153	-3.76196	19.51500	0	49	0
-0.38812	-3.93417	19.43500	0	49	0
-0.26748	-4.14083	19.37500	0	49	0
-0.14683	-4.33026	19.53500	0	49	0
0.12892	-4.50248	19.49500	0	49	0
0.35297	-4.39915	19.53500	0	49	0
0.62873	-4.33026	19.43500	0	49	0
0.87002	-4.27860	19.37500	0	49	0
1.18024	-4.17527	19.49500	0	49	0
1.36982	-4.03750	19.53500	0	49	0
1.55940	-3.81362	19.47500	0	49	0
1.69728	-3.60696	19.43500	0	49	0
1.78346	-3.33142	19.55500	0	49	0
1.90410	-3.09033	19.53500	0	49	0
2.02474	-2.69423	19.49500	0	49	0
2.05921	-2.57369	19.37500	0	49	0
2.05921	-2.28092	19.47500	0	49	0
2.05921	-1.97094	19.49500	0	49	0
2.00751	-1.64373	19.43500	0	49	0
1.95580	-1.45429	19.53500	0	49	0
1.88687	-1.17876	19.55500	0	49	0
1.80069	-0.85155	19.49500	0	49	0
1.61111	-0.45546	19.37500	0	49	0
1.52494	-0.24880	19.47500	0	49	0
1.40429	0.00952	19.55500	0	49	0
1.12854	0.25062	19.55500	0	49	0
0.93895	0.38839	19.39500	0	49	0
0.62873	0.47450	19.51500	0	49	0
-1.12921	-2.33258	19.47500	0	49	0
0.40468	3.09215	19.08000	0	49	0
0.16340	3.00603	19.16000	0	49	0
-0.33641	2.95437	19.16000	0	49	0
-0.49153	2.81660	19.08000	0	49	0
-0.68111	2.69606	19.02000	0	49	0
-0.83622	2.52384	19.02000	0	49	0
-0.97410	2.26552	19.14000	0	49	0
-1.07751	2.07609	19.00000	0	49	0
-1.14644	1.85220	19.04000	0	49	0
-1.24986	1.67999	19.10000	0	49	0
-1.43943	1.43889	19.12000	0	49	0
-1.61178	1.09446	19.16000	0	49	0
-1.78413	0.69837	19.16000	0	49	0
-1.90477	0.42284	19.00000	0	49	0
-2.09435	0.04397	19.10000	0	49	0
-2.28394	-0.30046	19.06000	0	49	0
-2.35288	-0.59323	19.08000	0	49	0
-2.47351	-0.88599	19.06000	0	49	0
-2.62863	-1.12709	19.14000	0	49	0
-2.64587	-1.21320	19.10000	0	49	0
-2.81821	-1.60929	19.12000	0	49	0
-2.71480	-1.78150	19.00000	0	49	0
-2.71480	-2.21204	19.12000	0	49	0
-2.71480	-2.48758	19.02000	0	49	0
-2.71480	-2.62535	19.00000	0	49	0
-2.73203	-3.22810	19.18000	0	49	0
-2.64587	-3.36586	19.16000	0	49	0
-2.76651	-2.93533	19.14000	0	49	0
-2.55969	-3.71029	19.18000	0	49	0
-2.42182	-3.81362	19.10000	0	49	0
-2.16329	-4.05472	19.06000	0	49	0
-1.97371	-4.26138	19.14000	0	49	0
-1.76689	-4.48526	19.02000	0	49	0
-1.50838	-4.57136	19.02000	0	49	0
-1.30155	-4.65747	19.14000	0	49	0
-1.12921	-4.74357	19.06000	0	49	0
-0.92239	-4.86412	19.02000	0	49	0
-0.76728	-4.96746	19.12000	0	49	0
-0.52599	-5.07078	19.18000	0	49	0
-0.38812	-5.15689	19.02000	0	49	0
-0.04343	-5.27744	19.08000	0	49	0
0.24956	-5.34633	19.04000	0	49	0
0.52532	-5.41521	19.14000	0	49	0
0.68044	-5.39799	19.00000	0	49	0
1.00790	-5.31188	19.16000	0	49	0
1.09406	-5.17411	19.12000	0	49	0
1.42152	-5.03634	19.08000	0	49	0
1.57664	-4.89857	19.18000	0	49	0
1.73175	-4.81246	19.14000	0	49	0
1.99027	-4.69191	19.00000	0	49	0
2.14539	-4.57136	19.02000	0	49	0
2.26603	-4.41637	19.06000	0	49	0
2.38667	-4.22694	19.02000	0	49	0
2.45561	-4.08916	19.02000	0	49	0
2.52454	-3.93417	19.18000	0	49	0
2.69690	-3.74473	19.18000	0	49	0
2.83477	-3.52086	19.18000	0	49	0
2.92095	-3.34864	19.10000	0	49	0
3.02436	-3.07311	19.18000	0	49	0
3.09329	-2.86645	19.06000	0	49	0
3.09329	-2.55647	19.10000	0	49	0
3.09329	-2.09149	19.12000	0	49	0
3.09329	-1.78150	19.02000	0	49	0
3.02436	-1.52318	19.08000	0	49	0
2.92095	-1.21320	19.06000	0	49	0
2.86924	-1.00654	19.18000	0	49	0
2.76584	-0.73100	19.10000	0	49	0
2.66242	-0.45546	19.08000	0	49	0
2.54178	-0.17991	19.10000	0	49	0
2.43837	0.07841	19.10000	0	49	0
2.31773	0.30228	19.00000	0	49	0
2.09368	0.66393	19.06000	0	49	0
2.02474	0.83615	19.14000	0	49	0
1.86963	1.04280	19.04000	0	49	0
1.78346	1.23224	19.04000	0	49	0
1.74899	1.49055	19.08000	0	49	0
1.68004	1.73165	19.06000	0	49	0
1.57664	2.04164	19.00000	0	49	0
1.50770	2.21385	19.10000	0	49	0
1.38706	2.40329	19.16000	0	49	0
1.07683	2.78216	19.00000	0	49	0
0.81831	2.95437	19.06000	0	49	0
0.57702	3.05770	19.00000	0	49	0
1.24918	2.64439	19.12000	0	49	0
-1.71519	0.87059	19.10000	0	49	0
-2.78374	-1.35097	19.08000	0	49	0
-2.73203	-2.00538	19.00000	0	49	0
-0.14683	4.22875	18.78500	0	49	0
-0.37089	4.21153	18.78500	0	49	0
-0.57770	4.17709	18.70500	0	49	0
-0.78451	4.14264	18.78500	0	49	0
-1.14644	4.03932	18.64500	0	49	0
-0.93963	4.09098	18.76500	0	49	0
-1.38773	3.84988	18.76500	0	49	0
-1.52561	3.72933	18.78500	0	49	0
-1.71519	3.53990	18.62500	0	49	0
-1.88754	3.36768	18.80500	0	49	0
-2.04265	3.17825	18.62500	0	49	0
-2.23223	2.91993	18.62500	0	49	0
-2.33564	2.67883	18.62500	0	49	0
-2.38734	2.35163	18.66500	0	49	0
-2.40458	2.04164	18.62500	0	49	0
-2.40458	1.73165	18.70500	0	49	0
-2.43905	1.47333	18.72500	0	49	0
-2.55969	1.24946	18.70500	0	49	0
-2.62863	1.11168	18.66500	0	49	0
-2.73203	0.88781	18.64500	0	49	0
-2.83545	0.71559	18.74500	0	49	0
-2.95609	0.38839	18.78500	0	49	0
-3.02502	0.28506	18.70500	0	49	0
-3.12844	0.00952	18.74500	0	49	0
-3.19738	-0.16269	18.74500	0	49	0
-3.30078	-0.45546	18.74500	0	49	0
-3.50760	-0.95487	18.66500	0	49	0
-3.38695	-0.76544	18.78500	0	49	0
-3.50760	-1.19598	18.78500	0	49	0
-3.52483	-1.48874	18.72500	0	49	0
-3.55931	-1.85038	18.66500	0	49	0
-3.57654	-2.07427	18.76500	0	49	0
-3.61101	-2.28092	18.74500	0	49	0
-3.59377	-2.48758	18.80500	0	49	0
-3.59377	-2.78034	18.66500	0	49	0
-3.55931	-2.96977	18.64500	0	49	0
-3.50760	-3.22810	18.74500	0	49	0
-3.40419	-3.50364	18.62500	0	49	0
-3.32408	-3.64141	18.76500	0	49	0
-3.18620	-3.81362	18.74500	0	49	0
-3.11120	-3.98417	18.62500	0	49	0
-3.11120	-4.14083	18.62500	0	49	0
-3.02502	-4.33026	18.72500	0	49	0
-2.81821	-4.53692	18.72500	0	49	0
-2.62863	-4.70913	18.78500	0	49	0
-2.50799	-4.79524	18.70500	0	49	0
-2.23223	-4.98468	18.70500	0	49	0
-1.95648	-5.13966	18.68500	0	49	0
-1.78413	-5.20856	18.80500	0	49	0
-1.62901	-5.26022	18.74500	0	49	0
-1.37050	-5.38077	18.68500	0	49	0
-1.15080	-5.51076	18.74500	0	49	0
-0.92239	-5.55298	18.78500	0	49	0
-0.56046	-5.63908	18.70500	0	49	0
-0.42258	-5.74241	18.64500	0	49	0
-0.16406	-5.81130	18.64500	0	49	0
0.18063	-5.93185	18.72500	0	49	0
0.62873	-5.93185	18.72500	0	49	0
0.76661	-5.93185	18.70500	0	49	0
0.97342	-5.86297	18.66500	0	49	0
1.21471	-5.84575	18.80500	0	49	0
1.36982	-5.77686	18.66500	0	49	0
1.69728	-5.69075	18.70500	0	49	0
1.83516	-5.58742	18.62500	0	49	0
1.99027	-5.39799	18.72500	0	49	0
2.11092	-5.27744	18.76500	0	49	0
2.33155	-5.12411	18.74500	0	49	0
2.47625	-4.99245	18.62500	0	49	0
2.69690	-4.89857	18.70500	0	49	0
2.98989	-4.70913	18.70500	0	49	0
3.23117	-4.55414	18.76500	0	49	0
3.35181	-4.39915	18.72500	0	49	0
3.52416	-4.07194	18.72500	0	49	0
3.59310	-3.89973	18.80500	0	49	0
3.69650	-3.62418	18.64500	0	49	0
3.81715	-3.38309	18.78500	0	49	0
3.88609	-3.07311	18.70500	0	49	0
3.92056	-2.83201	18.70500	0	49	0
3.92056	-2.59091	18.74500	0	49	0
3.92056	-2.33258	18.72500	0	49	0
3.88609	-2.00538	18.64500	0	49	0
3.83439	-1.79872	18.62500	0	49	0
3.69650	-1.36819	18.70500	0	49	0
3.64480	-1.14431	18.80500	0	49	0
3.52416	-0.79989	18.80500	0	49	0
3.48969	-0.55878	18.72500	0	49	0
3.40351	-0.28324	18.78500	0	49	0
3.33458	-0.09381	18.76500	0	49	0
3.21394	0.25062	18.72500	0	49	0
3.11053	0.45728	18.70500	0	49	0
2.98989	0.64671	18.78500	0	49	0
2.92095	0.87059	18.74500	0	49	0
2.92095	1.30112	18.62500	0	49	0
2.86924	1.12891	18.66500	0	49	0
2.86924	1.50778	18.74500	0	49	0
2.85200	1.73165	18.66500	0	49	0
2.78306	1.98998	18.76500	0	49	0
2.76584	2.26552	18.68500	0	49	0
2.55901	2.48940	18.64500	0	49	0
2.26603	2.79938	18.72500	0	49	0
2.19709	2.98881	18.80500	0	49	0
2.09368	3.14381	18.72500	0	49	0
1.95580	3.26436	18.80500	0	49	0
1.80069	3.43657	18.78500	0	49	0
1.57664	3.60879	18.80500	0	49	0
1.36982	3.72933	18.76500	0	49	0
1.18024	3.88432	18.70500	0	49	0
1.07683	3.95321	18.62500	0	49	0
0.93895	4.05654	18.78500	0	49	0
0.73214	4.12542	18.70500	0	49	0
0.54256	4.17709	18.76500	0	49	0
0.37021	4.24597	18.66500	0	49	0
0.18063	4.29764	18.62500	0	49	0
3.78268	-1.59207	18.78500	0	49	0
0.37021	-5.91463	18.78500	0	49	0
-0.21577	5.15870	18.37000	0	49	0
-0.57770	5.05538	18.25000	0	49	0
-0.85346	5.05538	18.29000	0	49	0
-1.09474	4.96927	18.31000	0	49	0
-1.42220	4.84873	18.43000	0	49	0
-1.61178	4.69373	18.27000	0	49	0
-1.83583	4.52152	18.31000	0	49	0
-2.00818	4.41819	18.39000	0	49	0
-2.16329	4.19431	18.43000	0	49	0
-2.26670	4.00488	18.31000	0	49	0
-2.47351	3.91877	18.31000	0	49	0
-2.66310	3.69489	18.27000	0	49	0
-2.85268	3.52268	18.29000	0	49	0
-3.01157	3.35809	18.35000	0	49	0
-3.10638	3.07365	18.37000	0	49	0
-3.20119	2.75760	18.29000	0	49	0
-3.29601	2.50476	18.25000	0	49	0
-3.26441	2.18870	18.37000	0	49	0
-3.32761	1.84105	18.27000	0	49	0
-3.35922	1.49339	18.39000	0	49	0
-3.39083	1.33537	18.39000	0	49	0
-3.54885	0.89290	18.25000	0	49	0
-3.67527	0.51363	18.35000	0	49	0
-3.70688	0.26079	18.37000	0	49	0
-3.80169	-0.08686	18.27000	0	49	0
-3.86490	-0.33970	18.29000	0	49	0
-3.89650	-0.46612	18.29000	0	49	0
-3.99132	-0.78218	18.37000	0	49	0
-3.99132	-1.06662	18.27000	0	49	0
-4.08614	-1.44588	18.25000	0	49	0
-4.08614	-1.73032	18.35000	0	49	0
-4.11774	-2.01478	18.35000	0	49	0
-4.11774	-2.23601	18.31000	0	49	0
-4.14935	-2.58366	18.31000	0	49	0
-4.02292	-2.99453	18.27000	0	49	0
-4.02292	-3.24737	18.29000	0	49	0
-3.95972	-3.53182	18.35000	0	49	0
-3.83329	-3.75305	18.39000	0	49	0
-3.77008	-3.91108	18.29000	0	49	0
-3.70688	-4.10071	18.27000	0	49	0
-3.64366	-4.29034	18.39000	0	49	0
-3.51725	-4.54318	18.27000	0	49	0
-3.45403	-4.66960	18.29000	0	49	0
-3.29601	-4.85924	18.29000	0	49	0
-3.07477	-5.04887	18.41000	0	49	0
-2.79033	-5.30171	18.25000	0	49	0
-2.60070	-5.42812	18.43000	0	49	0
-2.47428	-5.49133	18.33000	0	49	0
-2.25304	-5.55455	18.43000	0	49	0
-2.15822	-5.58615	18.31000	0	49	0
-1.93699	-5.68097	18.27000	0	49	0
-1.74736	-5.74418	18.33000	0	49	0
-1.49451	-5.80739	18.27000	0	49	0
-1.21007	-5.90220	18.33000	0	49	0
-1.05204	-6.02862	18.31000	0	49	0
-0.73599	-6.15504	18.25000	0	49	0
-0.54636	-6.15504	18.33000	0	49	0
0.14895	-6.31307	18.41000	0	49	0
-0.16710	-6.28146	18.39000	0	49	0
0.43339	-6.28146	18.31000	0	49	0
0.81266	-6.24986	18.29000	0	49	0
1.19192	-6.21826	18.41000	0	49	0
1.34995	-6.09183	18.29000	0	49	0
1.69760	-6.09183	18.31000	0	49	0
1.88723	-5.99702	18.43000	0	49	0
2.14007	-5.83899	18.41000	0	49	0
2.26649	-5.77578	18.35000	0	49	0
2.48773	-5.61775	18.25000	0	49	0
2.67736	-5.49133	18.41000	0	49	0
2.83538	-5.42812	18.31000	0	49	0
3.15144	-5.23850	18.35000	0	49	0
3.30946	-5.11207	18.27000	0	49	0
3.53070	-4.95405	18.35000	0	49	0
3.65712	-4.82763	18.41000	0	49	0
3.81514	-4.57479	18.31000	0	49	0
3.90995	-4.38516	18.39000	0	49	0
4.06798	-4.19552	18.27000	0	49	0
4.19441	-3.97429	18.37000	0	49	0
4.28922	-3.75305	18.25000	0	49	0
4.44724	-3.43701	18.43000	0	49	0
4.47885	-3.24737	18.25000	0	49	0
4.54206	-2.83650	18.35000	0	49	0
4.57366	-2.48885	18.31000	0	49	0
4.54206	-2.20440	18.27000	0	49	0
4.44724	-1.82514	18.33000	0	49	0
4.41564	-1.57230	18.29000	0	49	0
4.35243	-1.35107	18.25000	0	49	0
4.22601	-1.03502	18.27000	0	49	0
4.16280	-0.75057	18.35000	0	49	0
4.03638	-0.52933	18.43000	0	49	0
3.94156	-0.24489	18.25000	0	49	0
3.87835	-0.02365	18.33000	0	49	0
3.78353	0.26079	18.29000	0	49	0
3.68872	0.48203	18.37000	0	49	0
3.56230	0.76647	18.25000	0	49	0
3.53070	1.08253	18.35000	0	49	0
3.46749	1.30377	18.29000	0	49	0
3.43588	1.52500	18.33000	0	49	0
3.40427	1.74624	18.29000	0	49	0
3.40427	1.84105	18.31000	0	49	0
3.37267	2.12549	18.41000	0	49	0
3.30946	2.40994	18.35000	0	49	0
3.15144	2.78920	18.25000	0	49	0
3.02502	3.01044	18.35000	0	49	0
2.93020	3.20007	18.31000	0	49	0
2.74057	3.51612	18.29000	0	49	0
2.58255	3.67415	18.43000	0	49	0
2.42452	3.92699	18.39000	0	49	0
2.17168	4.11662	18.31000	0	49	0
2.07686	4.27464	18.39000	0	49	0
1.72921	4.49588	18.33000	0	49	0
1.47637	4.68551	18.43000	0	49	0
1.16031	4.87514	18.41000	0	49	0
0.93907	5.00156	18.41000	0	49	0
0.81266	5.03317	18.41000	0	49	0
0.52821	5.19120	18.25000	0	49	0
0.27537	5.22280	18.43000	0	49	0
0.08574	5.22280	18.39000	0	49	0
-0.10389	5.79169	17.93500	0	49	0
-0.32513	5.79169	17.87500	0	49	0
-0.57797	5.79169	18.01500	0	49	0
-0.83081	5.76009	17.99500	0	49	0
-0.95723	5.66527	17.89500	0	49	0
-1.21007	5.63367	17.91500	0	49	0
-1.36810	5.57046	17.95500	0	49	0
-1.62094	5.38082	17.91500	0	49	0
-1.77896	5.22280	18.03500	0	49	0
-2.00020	5.06477	17.99500	0	49	0
-2.09502	4.96995	17.93500	0	49	0
-2.34786	4.74872	18.05500	0	49	0
-2.44267	4.65391	18.03500	0	49	0
-2.66390	4.49588	17.93500	0	49	0
-2.88514	4.36946	17.97500	0	49	0
-2.97995	4.21143	17.89500	0	49	0
-3.16959	4.05341	17.87500	0	49	0
-3.35922	3.70575	18.05500	0	49	0
-3.51725	3.48452	17.99500	0	49	0
-3.64366	3.26328	17.91500	0	49	0
-3.73848	3.01044	17.97500	0	49	0
-3.86490	2.69439	17.95500	0	49	0
-3.89650	2.34673	18.03500	0	49	0
-3.89650	2.15710	17.97500	0	49	0
-3.92811	1.61982	17.93500	0	49	0
-4.05453	1.27216	17.89500	0	49	0
-4.05453	1.01932	18.01500	0	49	0
-4.18095	0.57685	17.87500	0	49	0
-4.18095	0.22919	18.03500	0	49	0
-4.21256	0.00795	17.87500	0	49	0
-4.24416	-0.27649	17.95500	0	49	0
-4.37058	-0.71896	17.99500	0	49	0
-4.40219	-0.97180	18.05500	0	49	0
-4.43379	-1.44588	17.99500	0	49	0
-4.46540	-1.57230	18.03500	0	49	0
-4.49700	-1.79354	17.97500	0	49	0
-4.49700	-2.10959	17.91500	0	49	0
-4.49700	-2.23601	17.91500	0	49	0
-4.49700	-2.36243	17.91500	0	49	0
-4.49700	-2.67848	17.89500	0	49	0
-4.37058	-2.99453	18.01500	0	49	0
-4.37058	-3.21577	18.03500	0	49	0
-4.30737	-3.53182	17.97500	0	49	0
-4.30737	-3.72145	18.05500	0	49	0
-4.30737	-3.91108	18.05500	0	49	0
-4.14935	-4.13232	17.91500	0	49	0
-4.11774	-4.35355	18.05500	0	49	0
-4.02292	-4.54318	17.99500	0	49	0
-3.86490	-4.79603	18.05500	0	49	0
-3.70688	-4.98565	17.97500	0	49	0
-3.58045	-5.17529	17.87500	0	49	0
-3.39083	-5.36491	17.99500	0	49	0
-2.94835	-5.49133	17.91500	0	49	0
-2.56909	-5.64936	17.97500	0	49	0
-2.28464	-5.71257	17.91500	0	49	0
-2.06341	-5.80739	17.93500	0	49	0
-1.84218	-5.99702	17.89500	0	49	0
-1.62094	-6.12344	17.99500	0	49	0
-1.39970	-6.18665	17.89500	0	49	0
-1.17847	-6.24986	17.87500	0	49	0
-1.02044	-6.31307	17.91500	0	49	0
-0.83081	-6.40789	17.91500	0	49	0
-0.64118	-6.50270	17.89500	0	49	0
-0.32513	-6.56591	17.87500	0	49	0
-0.07228	-6.56591	17.93500	0	49	0
0.21216	-6.62912	17.97500	0	49	0
0.46500	-6.66072	17.97500	0	49	0
0.78105	-6.66072	17.87500	0	49	0
1.00228	-6.59751	17.87500	0	49	0
1.25513	-6.56591	18.03500	0	49	0
1.66599	-6.53430	17.87500	0	49	0
2.07686	-6.40789	17.89500	0	49	0
2.45612	-6.21826	17.99500	0	49	0
2.83538	-6.06023	17.95500	0	49	0
2.86699	-5.96541	17.95500	0	49	0
3.15144	-5.80739	18.05500	0	49	0
3.56230	-5.61775	17.87500	0	49	0
3.65712	-5.45973	18.05500	0	49	0
3.87835	-5.27010	17.91500	0	49	0
4.06798	-5.11207	17.97500	0	49	0
4.32083	-4.82763	17.89500	0	49	0
4.47885	-4.44836	17.95500	0	49	0
4.63688	-4.22713	17.87500	0	49	0
4.79490	-3.81627	17.91500	0	49	0
4.88971	-3.59503	17.89500	0	49	0
4.98453	-3.18416	17.97500	0	49	0
5.07935	-2.77330	17.89500	0	49	0
4.95292	-2.42564	17.99500	0	49	0
4.92132	-1.95157	17.93500	0	49	0
4.85811	-1.57230	17.87500	0	49	0
4.79490	-1.31946	18.03500	0	49	0
4.76330	-1.00341	17.91500	0	49	0
4.70009	-0.59254	17.97500	0	49	0
4.63688	-0.30809	17.99500	0	49	0
4.57366	0.03956	17.95500	0	49	0
4.44724	0.45043	17.91500	0	49	0
4.35243	0.79808	17.95500	0	49	0
4.13120	1.24055	17.97500	0	49	0
4.00477	1.61982	17.91500	0	49	0
3.90995	2.09389	17.89500	0	49	0
3.87835	2.44155	17.89500	0	49	0
3.78353	2.69439	17.97500	0	49	0
3.72032	2.94723	17.87500	0	49	0
3.59391	3.23168	17.97500	0	49	0
3.49909	3.42131	17.89500	0	49	0
3.37267	3.57933	18.01500	0	49	0
3.21465	3.76896	17.91500	0	49	0
3.05662	3.92699	17.93500	0	49	0
2.96181	4.02180	18.01500	0	49	0
2.77217	4.27464	17.93500	0	49	0
2.70897	4.40107	17.87500	0	49	0
2.48773	4.59070	18.05500	0	49	0
2.20328	4.84354	18.03500	0	49	0
2.07686	5.00156	17.95500	0	49	0
1.82402	5.15959	17.95500	0	49	0
1.66599	5.19120	18.05500	0	49	0
1.57118	5.28601	17.97500	0	49	0
1.34995	5.44403	17.87500	0	49	0
1.06550	5.60206	17.97500	0	49	0
0.68623	5.72848	17.89500	0	49	0
0.40179	5.79169	17.91500	0	49	0
0.14895	5.85490	17.95500	0	49	0
-3.99132	1.96747	17.87500	0	49	0
-0.32513	6.45540	17.62000	0	49	0
-0.57797	6.39218	17.50000	0	49	0
-1.02044	6.32897	17.52000	0	49	0
-1.49451	6.13935	17.68000	0	49	0
-1.76057	5.96293	17.68000	0	49	0
-2.00020	5.72848	17.56000	0	49	0
-2.25304	5.53885	17.64000	0	49	0
-2.56909	5.38082	17.50000	0	49	0
-2.82193	5.12799	17.60000	0	49	0
-2.94835	4.84354	17.62000	0	49	0
-3.20119	4.62230	17.50000	0	49	0
-3.45403	4.30625	17.66000	0	49	0
-3.58045	4.17983	17.60000	0	49	0
-3.73848	3.89539	17.64000	0	49	0
-3.92811	3.67415	17.68000	0	49	0
-4.08095	3.31989	17.52000	0	49	0
-4.14935	2.91563	17.50000	0	49	0
-4.33897	2.44155	17.54000	0	49	0
-4.33897	2.15710	17.62000	0	49	0
-4.46540	1.77784	17.68000	0	49	0
-4.49700	1.43018	17.50000	0	49	0
-4.59182	1.05093	17.68000	0	49	0
-4.62343	0.73487	17.60000	0	49	0
-4.62343	0.35561	17.68000	0	49	0
-4.62343	0.03956	17.68000	0	49	0
-4.65503	-0.24489	17.52000	0	49	0
-4.78145	-0.59254	17.52000	0	49	0
-4.78145	-0.90860	17.58000	0	49	0
-4.78145	-1.28786	17.64000	0	49	0
-4.78145	-1.57230	17.60000	0	49	0
-4.83287	-2.18459	17.52000	0	49	0
-4.84466	-1.88835	17.56000	0	49	0
-4.81306	-2.42564	17.68000	0	49	0
-4.81306	-2.71008	17.66000	0	49	0
-4.81306	-3.12095	17.58000	0	49	0
-4.74984	-3.59503	17.56000	0	49	0
-4.65503	-3.91108	17.58000	0	49	0
-4.59182	-4.06911	17.58000	0	49	0
-4.52861	-4.41676	17.50000	0	49	0
-4.37058	-4.60639	17.52000	0	49	0
-4.21256	-4.92244	17.64000	0	49	0
-4.02292	-5.14368	17.58000	0	49	0
-3.83329	-5.30171	17.52000	0	49	0
-3.48564	-5.58615	17.64000	0	49	0
-3.07477	-5.74418	17.60000	0	49	0
-2.82193	-5.80739	17.50000	0	49	0
-2.60070	-5.96541	17.68000	0	49	0
-2.25304	-6.09183	17.60000	0	49	0
-2.00020	-6.21826	17.66000	0	49	0
-1.77896	-6.28146	17.52000	0	49	0
-1.43131	-6.47110	17.54000	0	49	0
-1.11526	-6.59751	17.64000	0	49	0
-0.79920	-6.69233	17.50000	0	49	0
-0.60957	-6.75554	17.68000	0	49	0
-0.41995	-6.78715	17.62000	0	49	0
-0.16710	-6.85036	17.64000	0	49	0
0.14895	-6.88196	17.66000	0	49	0
0.30698	-6.91357	17.66000	0	49	0
0.68623	-6.94517	17.58000	0	49	0
0.87587	-6.94517	17.66000	0	49	0
1.25513	-6.88196	17.60000	0	49	0
1.57118	-6.81875	17.52000	0	49	0
1.95044	-6.72394	17.56000	0	49	0
2.26649	-6.66072	17.60000	0	49	0
2.61415	-6.53430	17.52000	0	49	0
2.89859	-6.43949	17.58000	0	49	0
3.18304	-6.34468	17.64000	0	49	0
3.40427	-6.18665	17.54000	0	49	0
3.62551	-6.02862	17.58000	0	49	0
3.81514	-5.90220	17.62000	0	49	0
3.97317	-5.64936	17.58000	0	49	0
4.16280	-5.58615	17.66000	0	49	0
4.47885	-5.33331	17.52000	0	49	0
4.60527	-5.17529	17.58000	0	49	0
4.82651	-4.79603	17.66000	0	49	0
4.95292	-4.54318	17.62000	0	49	0
5.07935	-4.29034	17.62000	0	49	0
5.14256	-4.16392	17.62000	0	49	0
5.26898	-3.75305	17.50000	0	49	0
5.33219	-3.40540	17.68000	0	49	0
5.45861	-3.02614	17.64000	0	49	0
5.45861	-2.61527	17.68000	0	49	0
5.42701	-2.23601	17.68000	0	49	0
5.39540	-1.91996	17.56000	0	49	0
5.39540	-1.66711	17.58000	0	49	0
5.39540	-1.25625	17.52000	0	49	0
5.30058	-0.90860	17.58000	0	49	0
5.14256	-0.49772	17.50000	0	49	0
5.07935	-0.18167	17.64000	0	49	0
5.01613	0.26079	17.62000	0	49	0
4.88971	0.54524	17.54000	0	49	0
4.79490	0.82969	17.54000	0	49	0
4.66848	1.30377	17.66000	0	49	0
4.60527	1.49339	17.62000	0	49	0
4.57366	1.80945	17.54000	0	49	0
4.47885	2.28353	17.56000	0	49	0
4.35243	2.63118	17.66000	0	49	0
4.28922	3.01044	17.68000	0	49	0
4.06798	3.35809	17.56000	0	49	0
3.87835	3.70575	17.64000	0	49	0
3.72032	3.92699	17.56000	0	49	0
3.53070	4.21143	17.64000	0	49	0
3.43588	4.36946	17.62000	0	49	0
3.30946	4.55909	17.58000	0	49	0
3.08823	4.74872	17.52000	0	49	0
2.86699	5.00156	17.56000	0	49	0
2.70897	5.19120	17.50000	0	49	0
2.39291	5.50724	17.56000	0	49	0
2.14007	5.72848	17.54000	0	49	0
1.85562	5.88650	17.50000	0	49	0
1.63439	6.01292	17.54000	0	49	0
1.41315	6.10774	17.56000	0	49	0
1.06550	6.23416	17.58000	0	49	0
0.71784	6.39218	17.56000	0	49	0
0.30698	6.48700	17.64000	0	49	0
0.02253	6.48700	17.60000	0	49	0
-0.26192	6.96108	17.16500	0	49	0
-0.54636	6.89787	17.12500	0	49	0
-0.89402	6.86627	17.26500	0	49	0
-1.08365	6.80306	17.24500	0	49	0
-1.33649	6.67663	17.12500	0	49	0
-1.58933	6.58182	17.28500	0	49	0
-1.90538	6.39218	17.24500	0	49	0
-2.03180	6.26577	17.28500	0	49	0
-2.18983	6.07614	17.30500	0	49	0
-2.47428	5.91811	17.20500	0	49	0
-2.56909	5.76009	17.18500	0	49	0
-2.85353	5.53885	17.30500	0	49	0
-2.94835	5.41243	17.18500	0	49	0
-3.23280	5.06477	17.18500	0	49	0
-3.39083	4.81193	17.12500	0	49	0
-3.64366	4.62230	17.12500	0	49	0
-3.75688	4.45249	17.26500	0	49	0
-3.89650	4.24304	17.12500	0	49	0
-4.02292	3.99020	17.26500	0	49	0
-4.14935	3.80057	17.16500	0	49	0
-4.27576	3.61093	17.18500	0	49	0
-4.37058	3.35809	17.26500	0	49	0
-4.52861	3.10525	17.18500	0	49	0
-4.56022	2.82081	17.14500	0	49	0
-4.64324	2.53637	17.22500	0	49	0
-4.71824	2.15710	17.30500	0	49	0
-4.90787	1.68302	17.14500	0	49	0
-4.91966	1.33537	17.28500	0	49	0
-5.03429	1.05093	17.14500	0	49	0
-5.00268	0.79808	17.28500	0	49	0
-5.06590	0.41882	17.18500	0	49	0
-5.06590	0.13437	17.28500	0	49	0
-5.06590	-0.18167	17.28500	0	49	0
-5.12911	-0.59254	17.28500	0	49	0
-5.06590	-0.94020	17.20500	0	49	0
-5.09750	-1.19304	17.26500	0	49	0
-5.09750	-1.57230	17.16500	0	49	0
-5.12911	-1.79354	17.14500	0	49	0
-5.12911	-2.33082	17.16500	0	49	0
-5.09750	-2.52046	17.24500	0	49	0
-5.09750	-2.83650	17.26500	0	49	0
-5.06590	-3.15256	17.12500	0	49	0
-5.06590	-3.43701	17.28500	0	49	0
-5.00268	-3.87948	17.18500	0	49	0
-4.84608	-4.13089	17.20500	0	49	0
-4.71824	-4.41676	17.14500	0	49	0
-4.65503	-4.66960	17.30500	0	49	0
-4.46540	-4.92244	17.16500	0	49	0
-4.21256	-5.20689	17.16500	0	49	0
-4.11774	-5.42812	17.14500	0	49	0
-3.92811	-5.55455	17.14500	0	49	0
-3.73848	-5.64936	17.18500	0	49	0
-3.44224	-5.73096	17.22500	0	49	0
-3.24083	-5.83899	17.14500	0	49	0
-2.94835	-6.06023	17.14500	0	49	0
-2.79033	-6.15504	17.12500	0	49	0
-2.47428	-6.31307	17.28500	0	49	0
-2.34786	-6.40789	17.14500	0	49	0
-2.15822	-6.43949	17.16500	0	49	0
-1.96860	-6.50270	17.20500	0	49	0
-1.65254	-6.62912	17.20500	0	49	0
-1.49451	-6.72394	17.22500	0	49	0
-1.14686	-6.81875	17.12500	0	49	0
-0.95723	-6.85036	17.22500	0	49	0
-0.79920	-6.88196	17.22500	0	49	0
-0.54636	-6.97677	17.18500	0	49	0
-0.29352	-7.03998	17.12500	0	49	0
0.05413	-7.10320	17.28500	0	49	0
0.30698	-7.13480	17.30500	0	49	0
0.55982	-7.13480	17.12500	0	49	0
0.92210	-7.03998	17.26500	0	49	0
1.19192	-7.00838	17.16500	0	49	0
1.53958	-6.91357	17.28500	0	49	0
1.85562	-6.88196	17.12500	0	49	0
2.35612	-6.75554	17.22500	0	49	0
2.64576	-6.69233	17.30500	0	49	0
3.02502	-6.47110	17.28500	0	49	0
3.27785	-6.34468	17.30500	0	49	0
3.53070	-6.18665	17.14500	0	49	0
3.75193	-6.02862	17.14500	0	49	0
4.00996	-5.86541	17.22500	0	49	0
4.28922	-5.71257	17.18500	0	49	0
4.41564	-5.58615	17.26500	0	49	0
4.73169	-5.39652	17.30500	0	49	0
4.88971	-5.23850	17.12500	0	49	0
5.11095	-5.01726	17.26500	0	49	0
5.23737	-4.76442	17.20500	0	49	0
5.36380	-4.51157	17.20500	0	49	0
5.52182	-4.19552	17.26500	0	49	0
5.55342	-3.87948	17.16500	0	49	0
5.66003	-3.50305	17.14500	0	49	0
5.71145	-3.12095	17.20500	0	49	0
5.71145	-2.89972	17.24500	0	49	0
5.67984	-2.45724	17.16500	0	49	0
5.67984	-2.10959	17.26500	0	49	0
5.61663	-1.82514	17.14500	0	49	0
5.58503	-1.22465	17.14500	0	49	0
5.49022	-0.87699	17.16500	0	49	0
5.49022	-0.78218	17.22500	0	49	0
5.42701	-0.21328	17.28500	0	49	0
5.26898	0.29240	17.22500	0	49	0
5.23737	0.51363	17.28500	0	49	0
5.11095	0.95611	17.20500	0	49	0
5.02935	1.32074	17.24500	0	49	0
4.92132	1.68302	17.28500	0	49	0
4.82651	1.96747	17.22500	0	49	0
4.76330	2.40994	17.28500	0	49	0
4.57366	2.85241	17.22500	0	49	0
4.51045	3.04204	17.30500	0	49	0
4.28922	3.57933	17.26500	0	49	0
4.13120	3.83218	17.16500	0	49	0
3.99959	4.17983	17.14500	0	49	0
3.75193	4.49588	17.30500	0	49	0
3.59391	4.74872	17.26500	0	49	0
3.45428	4.95817	17.16500	0	49	0
3.24625	5.12799	17.18500	0	49	0
3.05662	5.34922	17.22500	0	49	0
2.83538	5.60206	17.16500	0	49	0
2.61415	5.76009	17.26500	0	49	0
2.20328	6.01292	17.30500	0	49	0
1.95044	6.29737	17.24500	0	49	0
1.50797	6.51861	17.22500	0	49	0
1.28531	6.60163	17.16500	0	49	0
1.03389	6.70824	17.28500	0	49	0
0.78105	6.83466	17.18500	0	49	0
0.37019	6.96108	17.22500	0	49	0
0.18056	6.99268	17.26500	0	49	0
-0.35673	7.40355	16.81000	0	49	0
-0.70439	7.30874	16.85000	0	49	0
-1.11526	7.18231	16.93000	0	49	0
-1.36810	7.08750	16.89000	0	49	0
-1.68415	6.92948	16.93000	0	49	0
-1.96860	6.80306	16.77000	0	49	0
-2.18983	6.64503	16.75000	0	49	0
-2.34786	6.45540	16.81000	0	49	0
-2.50588	6.26577	16.91000	0	49	0
-2.66390	6.13935	16.79000	0	49	0
-2.88514	5.98132	16.91000	0	49	0
-2.97995	5.82329	16.87000	0	49	0
-3.10638	5.66527	16.77000	0	49	0
-3.35922	5.50724	16.85000	0	49	0
-3.45403	5.31762	16.87000	0	49	0
-3.61206	5.12799	16.93000	0	49	0
-3.77008	4.96995	16.77000	0	49	0
